ply
format ascii 1.0
element vertex 1219
property float x
property float y
property float z
property uchar red
property uchar green
property uchar blue
element face 0
property list uint8 int32 vertex_index
end_header
264.00000 240.00000 488.00000 60 50 32
264.00000 248.00000 488.00000 59 49 31
272.00000 224.00000 480.00000 67 57 38
272.00000 232.00000 480.00000 67 57 38
280.00000 224.00000 480.00000 69 59 40
280.00000 232.00000 480.00000 69 59 40
280.00000 232.00000 488.00000 71 61 42
272.00000 240.00000 480.00000 65 55 36
272.00000 240.00000 488.00000 63 53 35
272.00000 248.00000 488.00000 64 54 36
280.00000 240.00000 488.00000 70 60 42
280.00000 248.00000 488.00000 68 58 40
280.00000 248.00000 496.00000 70 60 42
288.00000 192.00000 464.00000 73 63 42
288.00000 200.00000 464.00000 74 64 43
288.00000 200.00000 472.00000 74 64 43
296.00000 192.00000 464.00000 75 65 44
296.00000 200.00000 464.00000 75 66 42
296.00000 200.00000 472.00000 75 65 44
288.00000 208.00000 472.00000 75 65 44
288.00000 216.00000 472.00000 74 64 43
296.00000 208.00000 472.00000 76 66 45
296.00000 216.00000 472.00000 76 66 45
304.00000 192.00000 456.00000 77 67 46
312.00000 192.00000 456.00000 78 68 47
304.00000 192.00000 464.00000 77 67 46
304.00000 200.00000 464.00000 78 69 45
312.00000 192.00000 464.00000 78 69 45
312.00000 200.00000 464.00000 79 70 44
312.00000 200.00000 472.00000 79 70 46
304.00000 208.00000 464.00000 78 69 45
304.00000 208.00000 472.00000 79 70 46
304.00000 216.00000 472.00000 79 70 46
312.00000 208.00000 472.00000 79 70 46
312.00000 216.00000 472.00000 79 70 46
288.00000 216.00000 480.00000 75 65 44
296.00000 216.00000 480.00000 76 66 45
304.00000 216.00000 480.00000 78 68 47
312.00000 216.00000 480.00000 80 71 47
288.00000 224.00000 480.00000 73 63 44
288.00000 232.00000 480.00000 74 64 45
288.00000 232.00000 488.00000 73 63 44
296.00000 224.00000 480.00000 77 67 46
296.00000 232.00000 480.00000 76 66 47
296.00000 232.00000 488.00000 76 66 47
288.00000 240.00000 488.00000 76 66 47
288.00000 248.00000 488.00000 76 66 48
296.00000 240.00000 488.00000 79 69 50
296.00000 248.00000 488.00000 78 68 50
288.00000 248.00000 496.00000 75 65 47
296.00000 248.00000 496.00000 79 69 51
304.00000 224.00000 480.00000 79 69 48
304.00000 232.00000 480.00000 79 69 50
304.00000 232.00000 488.00000 80 70 51
312.00000 224.00000 480.00000 81 71 50
312.00000 232.00000 480.00000 83 73 52
312.00000 232.00000 488.00000 82 72 53
304.00000 240.00000 488.00000 82 72 53
304.00000 248.00000 488.00000 83 73 54
312.00000 240.00000 488.00000 84 74 55
312.00000 248.00000 488.00000 84 74 55
304.00000 248.00000 496.00000 82 72 53
312.00000 248.00000 496.00000 85 75 56
344.00000 128.00000 408.00000 47 33 30
344.00000 136.00000 408.00000 43 29 30
320.00000 128.00000 424.00000 33 18 28
320.00000 136.00000 424.00000 35 20 28
328.00000 128.00000 416.00000 45 31 28
328.00000 128.00000 424.00000 42 28 29
328.00000 136.00000 424.00000 37 23 28
320.00000 128.00000 432.00000 33 18 28
320.00000 136.00000 432.00000 35 20 28
328.00000 136.00000 432.00000 38 24 29
328.00000 144.00000 424.00000 37 23 28
320.00000 144.00000 432.00000 36 24 31
320.00000 144.00000 440.00000 42 30 35
320.00000 152.00000 440.00000 55 43 46
328.00000 144.00000 432.00000 36 24 29
328.00000 144.00000 440.00000 35 23 28
328.00000 152.00000 432.00000 46 34 37
328.00000 152.00000 440.00000 45 33 36
336.00000 128.00000 416.00000 43 29 30
336.00000 128.00000 424.00000 43 29 28
336.00000 136.00000 416.00000 40 26 29
336.00000 136.00000 424.00000 42 28 29
344.00000 128.00000 416.00000 44 30 29
344.00000 136.00000 416.00000 40 26 29
344.00000 136.00000 424.00000 42 28 29
336.00000 144.00000 424.00000 38 24 29
344.00000 144.00000 416.00000 38 24 29
344.00000 144.00000 424.00000 43 29 30
344.00000 152.00000 424.00000 50 36 35
336.00000 144.00000 432.00000 38 24 29
336.00000 152.00000 432.00000 52 40 41
336.00000 152.00000 440.00000 56 45 43
344.00000 152.00000 432.00000 51 37 36
320.00000 160.00000 440.00000 62 50 51
328.00000 160.00000 440.00000 62 51 49
328.00000 168.00000 440.00000 73 62 57
336.00000 160.00000 432.00000 62 51 49
336.00000 160.00000 440.00000 60 49 47
336.00000 168.00000 440.00000 78 67 60
344.00000 160.00000 432.00000 63 52 48
344.00000 160.00000 440.00000 72 61 56
344.00000 168.00000 440.00000 84 73 64
344.00000 176.00000 440.00000 101 91 77
352.00000 128.00000 392.00000 40 23 33
360.00000 128.00000 384.00000 37 19 33
360.00000 128.00000 392.00000 39 22 32
360.00000 136.00000 392.00000 38 23 31
352.00000 128.00000 400.00000 38 23 31
352.00000 128.00000 408.00000 42 28 29
352.00000 136.00000 408.00000 40 26 29
360.00000 128.00000 400.00000 38 23 33
360.00000 136.00000 400.00000 39 24 32
360.00000 136.00000 408.00000 43 29 28
360.00000 144.00000 408.00000 43 29 28
368.00000 128.00000 384.00000 37 22 32
368.00000 128.00000 392.00000 40 23 31
368.00000 136.00000 384.00000 39 24 32
368.00000 136.00000 392.00000 40 26 29
376.00000 128.00000 384.00000 36 24 33
376.00000 136.00000 384.00000 39 25 30
376.00000 136.00000 392.00000 42 28 29
368.00000 136.00000 400.00000 41 27 30
368.00000 144.00000 392.00000 42 28 29
376.00000 144.00000 384.00000 44 30 27
376.00000 144.00000 392.00000 43 29 30
376.00000 152.00000 392.00000 46 32 28
368.00000 144.00000 400.00000 43 29 28
368.00000 144.00000 408.00000 43 29 28
368.00000 152.00000 400.00000 46 32 28
368.00000 152.00000 408.00000 48 35 28
376.00000 144.00000 400.00000 45 31 28
376.00000 152.00000 400.00000 47 34 27
376.00000 152.00000 408.00000 48 35 28
352.00000 136.00000 416.00000 43 29 30
360.00000 136.00000 416.00000 45 31 30
352.00000 144.00000 416.00000 43 29 30
352.00000 144.00000 424.00000 46 32 31
352.00000 152.00000 416.00000 46 32 31
352.00000 152.00000 424.00000 49 35 32
360.00000 144.00000 416.00000 44 30 29
360.00000 152.00000 416.00000 50 36 33
360.00000 152.00000 424.00000 53 42 37
352.00000 152.00000 432.00000 56 45 41
368.00000 152.00000 416.00000 49 35 31
368.00000 160.00000 408.00000 48 35 28
376.00000 160.00000 400.00000 48 35 28
376.00000 160.00000 408.00000 49 36 27
376.00000 168.00000 408.00000 51 38 27
352.00000 160.00000 424.00000 60 49 40
360.00000 160.00000 416.00000 55 44 37
360.00000 160.00000 424.00000 59 48 39
360.00000 168.00000 424.00000 63 53 39
352.00000 160.00000 432.00000 65 54 45
352.00000 168.00000 432.00000 76 66 54
352.00000 168.00000 440.00000 87 77 63
360.00000 160.00000 432.00000 60 49 40
360.00000 168.00000 432.00000 68 58 44
352.00000 176.00000 440.00000 98 88 72
352.00000 184.00000 440.00000 98 88 72
360.00000 176.00000 432.00000 76 66 50
360.00000 176.00000 440.00000 82 72 56
360.00000 184.00000 440.00000 98 88 70
368.00000 160.00000 416.00000 54 44 30
368.00000 160.00000 424.00000 56 46 34
368.00000 168.00000 416.00000 55 45 31
368.00000 168.00000 424.00000 55 45 31
376.00000 160.00000 416.00000 51 38 27
376.00000 168.00000 416.00000 53 43 29
376.00000 168.00000 424.00000 53 43 25
368.00000 168.00000 432.00000 65 55 39
368.00000 176.00000 424.00000 63 53 37
376.00000 176.00000 416.00000 58 48 32
376.00000 176.00000 424.00000 66 56 38
376.00000 184.00000 424.00000 73 63 45
368.00000 176.00000 432.00000 77 67 49
368.00000 176.00000 440.00000 80 70 52
368.00000 184.00000 432.00000 83 73 55
368.00000 184.00000 440.00000 82 72 54
376.00000 176.00000 432.00000 69 59 41
376.00000 184.00000 432.00000 75 65 47
376.00000 184.00000 440.00000 83 73 55
320.00000 160.00000 448.00000 70 59 57
320.00000 168.00000 448.00000 80 69 62
328.00000 168.00000 448.00000 78 67 58
320.00000 176.00000 448.00000 92 82 68
320.00000 176.00000 456.00000 89 79 63
320.00000 184.00000 456.00000 87 77 61
328.00000 176.00000 448.00000 90 80 64
328.00000 176.00000 456.00000 87 77 61
328.00000 184.00000 448.00000 91 81 65
328.00000 184.00000 456.00000 88 78 62
336.00000 168.00000 448.00000 83 73 61
336.00000 176.00000 448.00000 94 84 68
336.00000 184.00000 448.00000 91 81 63
336.00000 184.00000 456.00000 87 77 58
344.00000 176.00000 448.00000 94 84 68
344.00000 184.00000 448.00000 95 85 67
344.00000 184.00000 456.00000 88 78 59
352.00000 176.00000 448.00000 94 84 68
352.00000 184.00000 448.00000 95 85 69
360.00000 184.00000 448.00000 95 85 67
360.00000 192.00000 440.00000 102 92 74
368.00000 192.00000 440.00000 104 94 76
368.00000 200.00000 440.00000 109 99 80
376.00000 192.00000 432.00000 89 79 61
376.00000 192.00000 440.00000 90 80 62
376.00000 200.00000 440.00000 112 102 83
376.00000 208.00000 440.00000 118 108 89
320.00000 192.00000 456.00000 84 74 55
328.00000 192.00000 456.00000 85 75 56
320.00000 192.00000 464.00000 80 71 47
320.00000 200.00000 464.00000 80 71 47
328.00000 192.00000 464.00000 82 72 51
328.00000 200.00000 464.00000 80 71 47
320.00000 208.00000 464.00000 80 71 47
320.00000 208.00000 472.00000 80 71 47
320.00000 216.00000 472.00000 80 71 47
328.00000 208.00000 464.00000 79 70 46
328.00000 208.00000 472.00000 80 71 47
328.00000 216.00000 472.00000 80 71 47
336.00000 192.00000 456.00000 82 72 51
336.00000 200.00000 456.00000 80 70 49
344.00000 192.00000 448.00000 90 80 61
344.00000 192.00000 456.00000 82 72 51
344.00000 200.00000 456.00000 79 69 48
336.00000 200.00000 464.00000 78 69 45
344.00000 200.00000 464.00000 76 67 43
336.00000 208.00000 464.00000 79 70 46
336.00000 208.00000 472.00000 80 71 47
336.00000 216.00000 464.00000 80 70 49
336.00000 216.00000 472.00000 80 70 49
344.00000 208.00000 464.00000 79 70 46
344.00000 216.00000 464.00000 82 72 51
344.00000 216.00000 472.00000 81 71 50
320.00000 216.00000 480.00000 81 72 48
328.00000 224.00000 472.00000 81 71 50
336.00000 224.00000 472.00000 82 72 51
344.00000 224.00000 472.00000 82 72 51
344.00000 232.00000 472.00000 83 73 52
320.00000 224.00000 480.00000 82 72 51
320.00000 232.00000 480.00000 83 73 52
320.00000 232.00000 488.00000 84 74 55
328.00000 224.00000 480.00000 83 73 52
328.00000 232.00000 480.00000 84 74 55
328.00000 232.00000 488.00000 84 74 55
320.00000 240.00000 488.00000 85 75 56
320.00000 248.00000 488.00000 86 76 58
328.00000 240.00000 488.00000 85 75 56
328.00000 248.00000 488.00000 86 76 58
320.00000 248.00000 496.00000 85 75 56
328.00000 248.00000 496.00000 86 76 58
336.00000 224.00000 480.00000 83 73 52
336.00000 232.00000 480.00000 84 74 53
344.00000 232.00000 480.00000 84 74 53
336.00000 240.00000 480.00000 85 75 56
336.00000 240.00000 488.00000 84 74 55
336.00000 248.00000 488.00000 86 76 58
344.00000 240.00000 480.00000 84 74 55
344.00000 240.00000 488.00000 83 73 54
344.00000 248.00000 480.00000 83 73 55
344.00000 248.00000 488.00000 84 74 56
352.00000 192.00000 448.00000 94 84 65
352.00000 192.00000 456.00000 87 77 56
352.00000 200.00000 456.00000 84 74 53
360.00000 192.00000 448.00000 98 88 69
360.00000 200.00000 448.00000 98 88 69
360.00000 200.00000 456.00000 91 81 60
352.00000 208.00000 456.00000 87 77 56
352.00000 216.00000 456.00000 88 78 57
360.00000 208.00000 456.00000 90 80 59
360.00000 216.00000 456.00000 89 79 58
352.00000 208.00000 464.00000 84 74 53
352.00000 216.00000 464.00000 87 77 56
360.00000 216.00000 464.00000 89 79 58
368.00000 192.00000 448.00000 100 90 72
368.00000 200.00000 448.00000 103 93 74
376.00000 200.00000 448.00000 111 101 82
368.00000 208.00000 448.00000 107 97 78
368.00000 208.00000 456.00000 98 88 67
368.00000 216.00000 448.00000 103 93 74
368.00000 216.00000 456.00000 97 87 66
376.00000 208.00000 448.00000 108 98 79
376.00000 216.00000 448.00000 107 97 78
376.00000 216.00000 456.00000 98 88 69
352.00000 224.00000 464.00000 87 77 56
352.00000 224.00000 472.00000 84 74 53
352.00000 232.00000 472.00000 83 73 54
360.00000 224.00000 464.00000 84 74 53
360.00000 224.00000 472.00000 83 73 52
360.00000 232.00000 464.00000 83 73 54
360.00000 232.00000 472.00000 83 73 52
352.00000 240.00000 472.00000 83 73 54
360.00000 240.00000 472.00000 83 73 54
360.00000 248.00000 472.00000 82 72 53
368.00000 224.00000 456.00000 92 82 61
376.00000 224.00000 456.00000 90 80 61
376.00000 232.00000 456.00000 87 77 58
368.00000 224.00000 464.00000 88 78 57
368.00000 232.00000 464.00000 85 75 54
368.00000 232.00000 472.00000 83 73 54
376.00000 224.00000 464.00000 87 77 58
376.00000 232.00000 464.00000 85 75 56
368.00000 240.00000 464.00000 83 73 54
368.00000 240.00000 472.00000 83 73 54
368.00000 248.00000 472.00000 83 73 54
376.00000 240.00000 464.00000 84 74 55
376.00000 240.00000 472.00000 83 73 54
376.00000 248.00000 472.00000 83 73 54
352.00000 232.00000 480.00000 83 73 54
352.00000 240.00000 480.00000 82 72 53
352.00000 248.00000 480.00000 81 71 52
352.00000 248.00000 488.00000 80 70 52
360.00000 240.00000 480.00000 82 72 53
360.00000 248.00000 480.00000 82 72 53
368.00000 248.00000 480.00000 82 72 53
376.00000 248.00000 480.00000 82 72 54
384.00000 48.00000 344.00000 100 85 53
384.00000 56.00000 344.00000 100 85 54
384.00000 48.00000 352.00000 99 84 53
384.00000 48.00000 360.00000 98 83 52
384.00000 56.00000 352.00000 99 84 53
384.00000 56.00000 360.00000 99 84 53
384.00000 56.00000 368.00000 99 84 52
384.00000 64.00000 352.00000 99 84 53
384.00000 144.00000 280.00000 37 36 22
384.00000 152.00000 272.00000 41 36 21
384.00000 152.00000 280.00000 39 38 24
392.00000 152.00000 280.00000 38 37 23
384.00000 136.00000 296.00000 40 52 47
384.00000 128.00000 312.00000 22 40 40
384.00000 136.00000 304.00000 35 47 44
384.00000 136.00000 312.00000 26 40 39
384.00000 144.00000 288.00000 37 40 30
384.00000 144.00000 296.00000 37 48 41
384.00000 152.00000 288.00000 38 39 27
384.00000 152.00000 296.00000 38 43 34
392.00000 144.00000 296.00000 38 46 38
392.00000 152.00000 288.00000 39 38 24
392.00000 152.00000 296.00000 38 43 34
384.00000 144.00000 304.00000 35 46 41
384.00000 144.00000 312.00000 35 43 37
392.00000 144.00000 304.00000 38 45 37
392.00000 144.00000 312.00000 38 43 34
392.00000 152.00000 304.00000 37 40 30
392.00000 152.00000 312.00000 40 41 31
400.00000 152.00000 288.00000 41 36 19
400.00000 152.00000 296.00000 38 36 20
400.00000 152.00000 304.00000 40 39 25
400.00000 152.00000 312.00000 45 42 29
384.00000 160.00000 264.00000 67 57 39
384.00000 168.00000 256.00000 90 78 59
384.00000 168.00000 264.00000 83 71 52
392.00000 168.00000 264.00000 90 78 57
384.00000 160.00000 272.00000 53 47 30
384.00000 160.00000 280.00000 46 41 24
392.00000 160.00000 272.00000 47 42 25
392.00000 160.00000 280.00000 50 44 25
392.00000 168.00000 272.00000 73 63 44
392.00000 168.00000 280.00000 60 52 32
384.00000 176.00000 256.00000 98 86 65
384.00000 176.00000 264.00000 98 86 65
392.00000 176.00000 256.00000 107 93 70
392.00000 176.00000 264.00000 109 95 72
392.00000 184.00000 256.00000 113 99 76
392.00000 184.00000 264.00000 121 105 83
392.00000 176.00000 272.00000 90 78 57
400.00000 160.00000 280.00000 46 41 24
400.00000 168.00000 272.00000 68 60 41
400.00000 168.00000 280.00000 59 51 32
400.00000 176.00000 264.00000 114 98 76
400.00000 184.00000 256.00000 114 98 76
400.00000 184.00000 264.00000 114 98 74
408.00000 184.00000 264.00000 113 97 73
400.00000 176.00000 272.00000 100 86 63
400.00000 176.00000 280.00000 91 79 58
400.00000 184.00000 272.00000 115 99 75
408.00000 176.00000 280.00000 99 85 62
408.00000 184.00000 272.00000 114 98 74
408.00000 184.00000 280.00000 112 96 72
392.00000 160.00000 288.00000 44 39 22
400.00000 160.00000 288.00000 46 40 21
400.00000 160.00000 296.00000 36 30 11
400.00000 168.00000 288.00000 57 49 29
400.00000 168.00000 296.00000 52 44 25
408.00000 168.00000 288.00000 69 59 40
408.00000 168.00000 296.00000 59 51 31
400.00000 160.00000 304.00000 48 42 23
400.00000 160.00000 312.00000 52 46 29
400.00000 168.00000 304.00000 59 51 31
400.00000 168.00000 312.00000 57 49 30
408.00000 160.00000 312.00000 54 48 31
408.00000 168.00000 304.00000 67 57 38
408.00000 168.00000 312.00000 56 48 29
400.00000 176.00000 288.00000 81 69 48
408.00000 176.00000 288.00000 93 79 56
408.00000 176.00000 296.00000 79 67 46
408.00000 184.00000 288.00000 103 87 63
408.00000 176.00000 304.00000 85 73 50
408.00000 176.00000 312.00000 82 70 49
416.00000 184.00000 280.00000 104 88 64
416.00000 176.00000 296.00000 94 80 57
416.00000 184.00000 288.00000 103 87 63
416.00000 184.00000 296.00000 100 84 60
416.00000 176.00000 304.00000 92 78 55
416.00000 176.00000 312.00000 94 80 57
416.00000 184.00000 304.00000 101 85 61
416.00000 184.00000 312.00000 104 88 64
424.00000 184.00000 304.00000 107 91 67
424.00000 184.00000 312.00000 116 101 74
384.00000 128.00000 320.00000 21 37 38
384.00000 128.00000 328.00000 20 34 37
384.00000 136.00000 320.00000 26 38 37
384.00000 136.00000 328.00000 25 37 36
392.00000 136.00000 320.00000 31 39 35
392.00000 136.00000 328.00000 31 38 34
384.00000 128.00000 336.00000 26 33 36
384.00000 128.00000 344.00000 27 31 34
384.00000 136.00000 336.00000 28 34 35
384.00000 136.00000 344.00000 31 33 33
392.00000 136.00000 336.00000 32 36 35
392.00000 136.00000 344.00000 36 36 32
384.00000 144.00000 320.00000 29 40 35
392.00000 144.00000 320.00000 37 41 34
392.00000 144.00000 328.00000 36 39 34
392.00000 144.00000 336.00000 39 39 35
392.00000 144.00000 344.00000 43 40 33
400.00000 144.00000 320.00000 42 43 33
400.00000 144.00000 328.00000 47 45 36
400.00000 152.00000 320.00000 51 46 33
400.00000 152.00000 328.00000 55 50 39
408.00000 152.00000 328.00000 58 51 39
400.00000 144.00000 336.00000 45 43 36
400.00000 144.00000 344.00000 47 44 37
400.00000 152.00000 336.00000 56 51 40
400.00000 152.00000 344.00000 52 45 35
408.00000 152.00000 336.00000 64 57 45
408.00000 152.00000 344.00000 68 59 47
384.00000 128.00000 352.00000 30 30 34
384.00000 128.00000 360.00000 30 25 34
384.00000 136.00000 352.00000 34 32 32
384.00000 136.00000 360.00000 34 30 33
392.00000 136.00000 352.00000 37 33 30
392.00000 136.00000 360.00000 38 32 31
384.00000 128.00000 368.00000 34 26 34
384.00000 128.00000 376.00000 34 23 32
384.00000 136.00000 368.00000 37 26 31
384.00000 136.00000 376.00000 39 27 30
392.00000 136.00000 368.00000 38 30 30
392.00000 144.00000 352.00000 43 38 29
392.00000 144.00000 360.00000 45 36 28
384.00000 144.00000 368.00000 41 29 30
384.00000 144.00000 376.00000 47 31 28
392.00000 144.00000 368.00000 42 32 30
392.00000 144.00000 376.00000 49 35 31
392.00000 152.00000 368.00000 54 41 32
392.00000 152.00000 376.00000 59 43 35
400.00000 144.00000 352.00000 48 39 29
400.00000 144.00000 360.00000 46 37 25
400.00000 152.00000 352.00000 51 42 28
400.00000 152.00000 360.00000 54 41 26
408.00000 152.00000 352.00000 59 47 29
408.00000 152.00000 360.00000 55 41 20
400.00000 144.00000 368.00000 50 39 30
400.00000 152.00000 368.00000 61 49 31
400.00000 152.00000 376.00000 66 51 38
400.00000 160.00000 320.00000 55 46 30
400.00000 160.00000 328.00000 54 48 33
408.00000 160.00000 320.00000 56 46 28
408.00000 160.00000 328.00000 55 45 29
408.00000 168.00000 320.00000 55 45 26
408.00000 168.00000 328.00000 51 41 23
408.00000 160.00000 336.00000 65 55 39
408.00000 160.00000 344.00000 81 68 53
408.00000 176.00000 320.00000 75 63 42
392.00000 160.00000 376.00000 67 52 39
408.00000 160.00000 352.00000 87 72 54
408.00000 160.00000 360.00000 72 57 39
408.00000 168.00000 352.00000 107 92 74
408.00000 168.00000 360.00000 112 97 79
400.00000 160.00000 368.00000 72 57 40
400.00000 160.00000 376.00000 76 61 46
400.00000 168.00000 368.00000 79 64 47
400.00000 168.00000 376.00000 81 66 51
408.00000 160.00000 368.00000 72 57 40
408.00000 168.00000 368.00000 80 65 48
408.00000 168.00000 376.00000 90 75 60
408.00000 176.00000 360.00000 126 111 94
408.00000 176.00000 368.00000 121 106 89
408.00000 176.00000 376.00000 116 101 86
416.00000 160.00000 328.00000 53 43 25
416.00000 168.00000 320.00000 59 47 28
416.00000 168.00000 328.00000 46 31 13
416.00000 160.00000 336.00000 62 52 36
416.00000 160.00000 344.00000 86 74 56
416.00000 168.00000 336.00000 73 61 42
416.00000 168.00000 344.00000 113 98 80
416.00000 176.00000 320.00000 85 71 48
416.00000 176.00000 328.00000 78 63 45
416.00000 184.00000 320.00000 96 80 56
416.00000 184.00000 328.00000 96 80 58
424.00000 176.00000 328.00000 88 74 53
424.00000 184.00000 320.00000 107 91 67
424.00000 184.00000 328.00000 103 89 68
416.00000 176.00000 336.00000 100 86 65
416.00000 176.00000 344.00000 129 114 96
424.00000 176.00000 336.00000 114 100 79
424.00000 176.00000 344.00000 155 139 119
424.00000 184.00000 336.00000 123 107 87
424.00000 184.00000 344.00000 135 119 99
432.00000 184.00000 336.00000 123 107 87
432.00000 184.00000 344.00000 128 112 92
416.00000 168.00000 352.00000 117 102 84
416.00000 168.00000 360.00000 104 89 71
416.00000 176.00000 352.00000 133 118 100
416.00000 176.00000 360.00000 125 110 92
416.00000 184.00000 360.00000 138 123 106
424.00000 176.00000 352.00000 143 128 110
424.00000 184.00000 352.00000 142 127 109
424.00000 184.00000 360.00000 138 123 106
416.00000 176.00000 368.00000 138 123 106
416.00000 176.00000 376.00000 132 117 102
416.00000 184.00000 368.00000 139 124 109
416.00000 184.00000 376.00000 147 132 117
424.00000 184.00000 368.00000 133 118 103
424.00000 184.00000 376.00000 133 118 103
400.00000 192.00000 256.00000 107 91 67
408.00000 192.00000 256.00000 98 82 58
408.00000 192.00000 264.00000 95 79 55
408.00000 200.00000 256.00000 87 71 47
408.00000 192.00000 272.00000 100 84 60
416.00000 192.00000 256.00000 87 71 47
416.00000 192.00000 264.00000 88 72 48
416.00000 200.00000 256.00000 76 60 36
416.00000 200.00000 264.00000 75 59 35
424.00000 200.00000 264.00000 75 59 35
416.00000 192.00000 272.00000 90 74 50
416.00000 192.00000 280.00000 95 79 55
416.00000 200.00000 272.00000 75 59 35
416.00000 200.00000 280.00000 78 62 38
424.00000 192.00000 280.00000 82 66 42
424.00000 200.00000 272.00000 71 55 31
424.00000 200.00000 280.00000 62 46 22
416.00000 208.00000 256.00000 74 58 36
416.00000 208.00000 264.00000 75 59 37
416.00000 216.00000 256.00000 73 57 35
424.00000 208.00000 256.00000 75 59 37
424.00000 208.00000 264.00000 75 59 37
424.00000 216.00000 256.00000 74 58 36
424.00000 216.00000 264.00000 75 59 37
424.00000 208.00000 272.00000 59 43 19
424.00000 208.00000 280.00000 53 37 13
424.00000 216.00000 272.00000 62 46 24
432.00000 216.00000 256.00000 75 59 37
432.00000 216.00000 264.00000 68 52 30
432.00000 208.00000 272.00000 50 34 10
432.00000 208.00000 280.00000 37 21 0
432.00000 216.00000 272.00000 54 38 16
432.00000 216.00000 280.00000 58 42 20
440.00000 216.00000 280.00000 83 67 45
416.00000 192.00000 288.00000 94 78 54
416.00000 192.00000 296.00000 99 83 59
424.00000 192.00000 288.00000 87 71 47
424.00000 192.00000 296.00000 90 74 50
424.00000 200.00000 288.00000 76 60 36
424.00000 200.00000 296.00000 84 68 44
416.00000 192.00000 304.00000 101 85 61
424.00000 192.00000 304.00000 104 88 64
424.00000 192.00000 312.00000 102 86 62
424.00000 200.00000 304.00000 94 78 54
424.00000 200.00000 312.00000 96 80 56
432.00000 200.00000 288.00000 57 41 17
432.00000 200.00000 296.00000 68 52 28
432.00000 192.00000 312.00000 107 91 67
432.00000 200.00000 304.00000 82 66 42
432.00000 200.00000 312.00000 95 79 55
432.00000 208.00000 288.00000 68 52 28
432.00000 208.00000 296.00000 63 47 23
432.00000 216.00000 288.00000 84 68 44
432.00000 216.00000 296.00000 83 67 43
440.00000 216.00000 288.00000 90 74 52
440.00000 216.00000 296.00000 102 86 64
432.00000 208.00000 304.00000 78 62 38
432.00000 208.00000 312.00000 83 67 43
432.00000 216.00000 304.00000 75 59 35
440.00000 208.00000 304.00000 75 59 35
440.00000 208.00000 312.00000 80 64 40
440.00000 216.00000 304.00000 77 61 39
440.00000 216.00000 312.00000 81 65 43
424.00000 224.00000 256.00000 79 63 41
432.00000 224.00000 256.00000 81 65 43
432.00000 224.00000 264.00000 75 59 37
432.00000 232.00000 256.00000 89 73 51
432.00000 232.00000 264.00000 89 73 51
440.00000 224.00000 264.00000 80 64 42
440.00000 232.00000 256.00000 99 83 61
440.00000 232.00000 264.00000 105 89 67
432.00000 224.00000 272.00000 63 47 25
440.00000 224.00000 272.00000 60 44 22
440.00000 224.00000 280.00000 112 96 74
440.00000 232.00000 272.00000 117 101 79
440.00000 232.00000 280.00000 126 110 88
440.00000 240.00000 256.00000 103 87 65
440.00000 240.00000 264.00000 124 108 86
440.00000 248.00000 256.00000 98 82 60
440.00000 240.00000 272.00000 166 150 128
440.00000 224.00000 288.00000 153 137 115
440.00000 224.00000 296.00000 119 103 81
440.00000 232.00000 288.00000 134 118 96
440.00000 224.00000 304.00000 103 87 65
440.00000 224.00000 312.00000 93 77 55
424.00000 192.00000 320.00000 108 92 68
424.00000 192.00000 328.00000 112 96 74
432.00000 192.00000 320.00000 106 90 68
432.00000 192.00000 328.00000 111 95 75
432.00000 200.00000 320.00000 100 84 62
432.00000 200.00000 328.00000 96 80 60
440.00000 200.00000 320.00000 92 76 56
440.00000 200.00000 328.00000 95 79 59
432.00000 192.00000 336.00000 102 86 66
432.00000 192.00000 344.00000 101 86 69
432.00000 200.00000 336.00000 91 76 58
432.00000 200.00000 344.00000 83 68 51
440.00000 192.00000 336.00000 101 85 67
440.00000 192.00000 344.00000 87 72 55
440.00000 200.00000 336.00000 96 80 62
440.00000 200.00000 344.00000 77 62 45
432.00000 208.00000 320.00000 88 72 50
440.00000 208.00000 320.00000 82 66 44
440.00000 208.00000 328.00000 85 69 49
440.00000 216.00000 320.00000 80 64 42
440.00000 216.00000 328.00000 78 64 43
440.00000 208.00000 336.00000 77 62 44
440.00000 208.00000 344.00000 77 62 45
440.00000 216.00000 336.00000 77 62 44
440.00000 216.00000 344.00000 76 61 43
424.00000 192.00000 360.00000 122 107 92
424.00000 192.00000 368.00000 112 97 82
424.00000 192.00000 376.00000 117 102 84
424.00000 200.00000 368.00000 97 82 69
424.00000 200.00000 376.00000 100 85 70
424.00000 208.00000 376.00000 85 73 55
432.00000 192.00000 352.00000 80 65 50
432.00000 192.00000 360.00000 94 79 64
432.00000 200.00000 352.00000 78 63 48
432.00000 200.00000 360.00000 81 66 53
440.00000 200.00000 352.00000 79 64 49
432.00000 192.00000 368.00000 99 84 71
432.00000 200.00000 368.00000 88 73 60
432.00000 200.00000 376.00000 91 79 61
432.00000 208.00000 352.00000 73 58 43
432.00000 208.00000 360.00000 71 56 43
440.00000 208.00000 352.00000 72 57 42
440.00000 208.00000 360.00000 68 53 40
440.00000 216.00000 352.00000 76 61 44
440.00000 216.00000 360.00000 69 54 41
432.00000 208.00000 368.00000 73 58 47
432.00000 208.00000 376.00000 72 59 46
432.00000 216.00000 376.00000 53 40 31
440.00000 208.00000 368.00000 69 54 43
440.00000 208.00000 376.00000 64 51 40
440.00000 216.00000 368.00000 67 52 41
440.00000 216.00000 376.00000 61 48 37
440.00000 224.00000 368.00000 71 58 47
440.00000 224.00000 376.00000 72 59 48
440.00000 232.00000 376.00000 84 71 60
448.00000 216.00000 312.00000 86 70 48
448.00000 232.00000 280.00000 118 102 80
448.00000 240.00000 256.00000 103 87 65
448.00000 240.00000 264.00000 120 104 82
448.00000 248.00000 256.00000 85 69 47
448.00000 248.00000 264.00000 100 84 62
456.00000 248.00000 264.00000 93 77 55
448.00000 240.00000 272.00000 112 96 74
448.00000 240.00000 280.00000 106 90 68
448.00000 248.00000 272.00000 108 92 70
448.00000 248.00000 280.00000 92 76 56
456.00000 248.00000 272.00000 88 72 52
456.00000 248.00000 280.00000 61 45 25
448.00000 224.00000 296.00000 121 105 83
448.00000 232.00000 288.00000 122 106 84
448.00000 232.00000 296.00000 106 90 68
448.00000 224.00000 304.00000 105 89 67
448.00000 224.00000 312.00000 94 78 56
448.00000 232.00000 304.00000 102 86 64
448.00000 232.00000 312.00000 101 85 65
456.00000 232.00000 304.00000 108 92 72
456.00000 232.00000 312.00000 108 92 72
448.00000 240.00000 288.00000 95 79 59
448.00000 240.00000 296.00000 94 78 58
456.00000 240.00000 288.00000 83 67 47
456.00000 240.00000 296.00000 92 76 56
456.00000 248.00000 288.00000 81 65 45
456.00000 248.00000 296.00000 98 82 62
456.00000 240.00000 304.00000 113 97 77
456.00000 240.00000 312.00000 119 105 84
456.00000 248.00000 304.00000 117 101 81
456.00000 248.00000 312.00000 139 125 104
464.00000 248.00000 296.00000 104 88 68
464.00000 240.00000 312.00000 123 109 88
464.00000 248.00000 304.00000 117 101 81
464.00000 248.00000 312.00000 118 104 83
448.00000 216.00000 320.00000 83 67 47
448.00000 216.00000 328.00000 81 67 46
448.00000 216.00000 336.00000 76 61 43
448.00000 216.00000 344.00000 77 62 45
448.00000 216.00000 352.00000 77 62 47
448.00000 216.00000 360.00000 77 62 49
448.00000 216.00000 368.00000 71 56 43
448.00000 224.00000 320.00000 88 74 53
448.00000 224.00000 328.00000 83 68 50
448.00000 232.00000 320.00000 98 84 63
448.00000 232.00000 328.00000 89 74 56
456.00000 224.00000 328.00000 81 66 48
456.00000 232.00000 320.00000 99 85 64
456.00000 232.00000 328.00000 86 71 53
448.00000 224.00000 336.00000 76 61 44
448.00000 224.00000 344.00000 77 62 45
456.00000 224.00000 336.00000 74 59 42
456.00000 224.00000 344.00000 78 63 46
456.00000 232.00000 336.00000 81 66 48
456.00000 232.00000 344.00000 82 67 50
456.00000 240.00000 320.00000 112 98 77
456.00000 240.00000 328.00000 100 85 67
456.00000 240.00000 336.00000 87 72 54
456.00000 240.00000 344.00000 83 68 50
464.00000 240.00000 320.00000 109 95 74
464.00000 240.00000 328.00000 100 85 67
464.00000 248.00000 320.00000 115 101 80
464.00000 248.00000 328.00000 105 90 72
472.00000 248.00000 328.00000 101 86 68
464.00000 240.00000 336.00000 85 70 52
464.00000 240.00000 344.00000 82 67 49
464.00000 248.00000 336.00000 87 72 54
464.00000 248.00000 344.00000 81 66 48
472.00000 248.00000 336.00000 87 72 54
472.00000 248.00000 344.00000 74 59 41
448.00000 224.00000 352.00000 80 65 50
448.00000 224.00000 360.00000 81 68 55
448.00000 232.00000 360.00000 87 74 61
456.00000 224.00000 352.00000 81 66 51
456.00000 232.00000 352.00000 84 69 54
456.00000 232.00000 360.00000 88 73 58
448.00000 224.00000 368.00000 83 70 57
448.00000 224.00000 376.00000 77 64 53
448.00000 232.00000 368.00000 95 82 69
448.00000 232.00000 376.00000 97 84 71
456.00000 232.00000 368.00000 92 79 66
456.00000 240.00000 352.00000 84 69 52
456.00000 240.00000 360.00000 90 77 62
456.00000 248.00000 360.00000 91 76 61
448.00000 240.00000 376.00000 112 99 86
448.00000 248.00000 376.00000 104 91 78
456.00000 240.00000 368.00000 97 84 69
456.00000 240.00000 376.00000 103 90 77
456.00000 248.00000 368.00000 95 82 67
456.00000 248.00000 376.00000 100 87 74
464.00000 240.00000 352.00000 83 68 51
464.00000 240.00000 360.00000 86 71 54
464.00000 248.00000 352.00000 81 66 49
464.00000 248.00000 360.00000 86 71 54
464.00000 248.00000 368.00000 89 76 61
384.00000 136.00000 384.00000 46 30 29
384.00000 144.00000 384.00000 45 31 28
384.00000 144.00000 392.00000 45 31 28
384.00000 152.00000 384.00000 46 32 28
384.00000 152.00000 392.00000 47 33 29
392.00000 152.00000 384.00000 53 40 31
392.00000 152.00000 392.00000 48 35 26
384.00000 152.00000 400.00000 47 34 27
384.00000 160.00000 392.00000 56 43 36
392.00000 160.00000 384.00000 67 52 41
392.00000 160.00000 392.00000 56 43 34
392.00000 168.00000 384.00000 69 56 45
392.00000 168.00000 392.00000 73 60 51
384.00000 160.00000 400.00000 53 40 31
384.00000 160.00000 408.00000 56 43 28
384.00000 168.00000 400.00000 64 52 34
384.00000 168.00000 408.00000 68 56 31
392.00000 160.00000 400.00000 63 50 35
392.00000 168.00000 400.00000 65 53 32
392.00000 168.00000 408.00000 68 57 27
384.00000 176.00000 408.00000 72 61 29
392.00000 176.00000 400.00000 79 68 36
392.00000 176.00000 408.00000 73 62 30
392.00000 184.00000 408.00000 96 87 31
400.00000 160.00000 384.00000 67 52 41
400.00000 168.00000 384.00000 72 57 46
400.00000 168.00000 392.00000 80 68 49
400.00000 168.00000 400.00000 68 56 38
400.00000 176.00000 384.00000 100 88 65
400.00000 176.00000 392.00000 102 91 59
408.00000 176.00000 384.00000 128 117 89
408.00000 176.00000 392.00000 121 110 77
408.00000 184.00000 384.00000 133 122 90
408.00000 184.00000 392.00000 134 124 80
400.00000 176.00000 400.00000 103 93 49
400.00000 176.00000 408.00000 89 79 35
400.00000 184.00000 400.00000 118 109 51
400.00000 184.00000 408.00000 109 100 42
408.00000 184.00000 400.00000 128 119 63
384.00000 168.00000 416.00000 56 46 27
384.00000 176.00000 416.00000 71 62 32
384.00000 176.00000 424.00000 73 64 38
384.00000 184.00000 424.00000 82 73 41
392.00000 176.00000 416.00000 86 76 32
392.00000 184.00000 416.00000 95 85 39
392.00000 184.00000 424.00000 93 85 41
384.00000 184.00000 432.00000 79 70 42
416.00000 184.00000 384.00000 139 125 100
416.00000 184.00000 392.00000 133 122 89
424.00000 184.00000 384.00000 132 118 95
408.00000 192.00000 392.00000 131 121 74
400.00000 192.00000 400.00000 123 115 49
400.00000 192.00000 408.00000 119 112 39
400.00000 200.00000 408.00000 127 121 38
408.00000 192.00000 400.00000 130 122 52
408.00000 192.00000 408.00000 129 122 42
408.00000 200.00000 400.00000 130 123 43
408.00000 200.00000 408.00000 138 133 34
408.00000 208.00000 408.00000 125 118 38
384.00000 192.00000 424.00000 93 85 47
392.00000 192.00000 416.00000 103 94 42
392.00000 192.00000 424.00000 100 93 46
392.00000 200.00000 416.00000 114 106 45
392.00000 200.00000 424.00000 117 108 54
384.00000 192.00000 432.00000 95 87 51
384.00000 200.00000 432.00000 112 104 62
384.00000 200.00000 440.00000 112 103 71
392.00000 200.00000 432.00000 112 104 60
392.00000 208.00000 424.00000 112 105 55
384.00000 208.00000 432.00000 112 104 70
384.00000 208.00000 440.00000 113 104 80
384.00000 216.00000 440.00000 107 97 76
392.00000 208.00000 432.00000 110 102 68
392.00000 208.00000 440.00000 108 99 73
392.00000 216.00000 432.00000 105 96 66
392.00000 216.00000 440.00000 101 91 72
400.00000 192.00000 416.00000 115 107 41
400.00000 200.00000 416.00000 123 116 41
400.00000 200.00000 424.00000 118 110 48
408.00000 200.00000 416.00000 127 121 38
400.00000 208.00000 416.00000 119 111 43
400.00000 208.00000 424.00000 114 105 47
400.00000 216.00000 424.00000 108 98 51
408.00000 208.00000 416.00000 121 114 41
408.00000 208.00000 424.00000 113 105 44
408.00000 216.00000 416.00000 107 98 44
408.00000 216.00000 424.00000 104 95 45
400.00000 208.00000 432.00000 109 101 57
400.00000 216.00000 432.00000 103 95 57
400.00000 216.00000 440.00000 99 90 64
408.00000 216.00000 432.00000 100 92 52
392.00000 224.00000 440.00000 95 85 66
408.00000 224.00000 424.00000 98 88 48
400.00000 224.00000 432.00000 97 88 58
400.00000 224.00000 440.00000 93 83 62
400.00000 232.00000 440.00000 86 76 57
408.00000 224.00000 432.00000 93 84 52
408.00000 224.00000 440.00000 89 80 56
408.00000 232.00000 432.00000 86 76 55
408.00000 232.00000 440.00000 82 72 54
408.00000 240.00000 432.00000 83 73 55
408.00000 240.00000 440.00000 83 73 55
408.00000 248.00000 440.00000 84 74 56
416.00000 192.00000 384.00000 127 116 86
416.00000 192.00000 392.00000 127 116 83
416.00000 200.00000 392.00000 120 110 63
424.00000 192.00000 384.00000 116 104 81
424.00000 192.00000 392.00000 120 109 72
424.00000 200.00000 384.00000 106 95 67
424.00000 200.00000 392.00000 103 92 55
416.00000 192.00000 400.00000 126 117 59
416.00000 200.00000 400.00000 120 112 42
416.00000 200.00000 408.00000 125 118 38
424.00000 208.00000 384.00000 93 81 56
424.00000 208.00000 392.00000 90 79 49
424.00000 216.00000 392.00000 84 73 43
416.00000 208.00000 400.00000 112 104 42
416.00000 208.00000 408.00000 115 107 37
416.00000 216.00000 408.00000 102 93 41
424.00000 208.00000 400.00000 95 85 45
424.00000 216.00000 400.00000 87 76 39
424.00000 216.00000 408.00000 90 80 40
432.00000 208.00000 384.00000 82 70 52
432.00000 216.00000 384.00000 74 62 44
432.00000 216.00000 392.00000 76 64 41
440.00000 216.00000 384.00000 65 52 43
416.00000 216.00000 416.00000 96 86 44
416.00000 216.00000 424.00000 98 88 46
424.00000 224.00000 400.00000 82 71 43
424.00000 224.00000 408.00000 81 69 44
424.00000 232.00000 408.00000 79 67 46
432.00000 224.00000 392.00000 79 66 51
432.00000 232.00000 392.00000 77 64 53
440.00000 224.00000 384.00000 79 66 55
440.00000 224.00000 392.00000 83 70 55
440.00000 232.00000 384.00000 90 77 66
440.00000 232.00000 392.00000 83 70 57
432.00000 224.00000 400.00000 79 67 48
432.00000 224.00000 408.00000 77 65 46
432.00000 232.00000 400.00000 76 63 48
432.00000 232.00000 408.00000 72 59 46
440.00000 232.00000 400.00000 79 66 55
440.00000 240.00000 392.00000 83 70 59
432.00000 240.00000 400.00000 78 65 52
432.00000 240.00000 408.00000 76 63 50
440.00000 240.00000 400.00000 80 67 54
440.00000 240.00000 408.00000 79 66 53
440.00000 248.00000 400.00000 86 73 60
440.00000 248.00000 408.00000 84 71 58
416.00000 224.00000 416.00000 92 81 46
416.00000 224.00000 424.00000 93 82 47
416.00000 232.00000 416.00000 86 75 47
416.00000 232.00000 424.00000 87 76 48
424.00000 224.00000 416.00000 85 74 46
424.00000 232.00000 416.00000 84 72 51
424.00000 232.00000 424.00000 83 71 50
416.00000 232.00000 432.00000 83 73 54
416.00000 240.00000 424.00000 83 73 54
424.00000 240.00000 416.00000 82 70 51
424.00000 240.00000 424.00000 82 72 54
424.00000 248.00000 424.00000 83 73 57
416.00000 240.00000 432.00000 83 73 55
416.00000 240.00000 440.00000 83 73 57
416.00000 248.00000 432.00000 83 73 57
416.00000 248.00000 440.00000 83 73 57
424.00000 240.00000 432.00000 83 73 57
424.00000 248.00000 432.00000 83 73 57
424.00000 248.00000 440.00000 83 73 57
432.00000 232.00000 416.00000 77 64 49
432.00000 240.00000 416.00000 82 70 52
432.00000 240.00000 424.00000 80 70 52
432.00000 248.00000 416.00000 82 69 56
432.00000 248.00000 424.00000 81 71 55
440.00000 248.00000 416.00000 82 69 56
384.00000 208.00000 448.00000 108 98 77
384.00000 216.00000 448.00000 106 96 77
384.00000 216.00000 456.00000 96 86 67
392.00000 216.00000 448.00000 99 89 70
384.00000 224.00000 448.00000 95 85 66
384.00000 224.00000 456.00000 87 77 58
384.00000 232.00000 456.00000 85 75 56
392.00000 224.00000 448.00000 91 81 62
392.00000 224.00000 456.00000 87 77 58
392.00000 232.00000 448.00000 86 76 58
392.00000 232.00000 456.00000 84 74 55
384.00000 232.00000 464.00000 84 74 55
384.00000 240.00000 456.00000 84 74 55
392.00000 240.00000 456.00000 84 74 55
392.00000 248.00000 456.00000 85 75 57
384.00000 240.00000 464.00000 84 74 55
384.00000 248.00000 464.00000 84 74 55
384.00000 248.00000 472.00000 84 74 55
392.00000 240.00000 464.00000 84 74 55
392.00000 248.00000 464.00000 84 74 55
400.00000 224.00000 448.00000 89 79 60
400.00000 232.00000 448.00000 83 73 55
400.00000 232.00000 456.00000 84 74 56
400.00000 240.00000 448.00000 83 73 55
400.00000 240.00000 456.00000 84 74 56
400.00000 248.00000 456.00000 84 74 56
408.00000 240.00000 448.00000 83 73 55
408.00000 248.00000 448.00000 84 74 56
408.00000 248.00000 456.00000 84 74 56
400.00000 248.00000 464.00000 84 74 56
416.00000 248.00000 448.00000 84 74 56
448.00000 232.00000 384.00000 94 81 70
448.00000 232.00000 392.00000 88 75 64
448.00000 240.00000 384.00000 102 89 76
448.00000 240.00000 392.00000 87 74 63
448.00000 248.00000 384.00000 101 88 75
448.00000 248.00000 392.00000 96 83 70
456.00000 248.00000 384.00000 99 86 73
456.00000 248.00000 392.00000 96 83 70
448.00000 240.00000 400.00000 89 76 63
448.00000 248.00000 400.00000 87 74 61
448.00000 248.00000 408.00000 86 73 60
256.00000 304.00000 120.00000 45 30 13
256.00000 312.00000 112.00000 70 55 38
256.00000 312.00000 120.00000 69 54 37
264.00000 304.00000 120.00000 94 79 62
264.00000 312.00000 112.00000 91 76 59
264.00000 312.00000 120.00000 93 78 61
272.00000 304.00000 120.00000 146 131 114
272.00000 312.00000 112.00000 110 95 78
272.00000 312.00000 120.00000 119 104 87
280.00000 304.00000 120.00000 106 91 74
280.00000 312.00000 112.00000 94 79 62
280.00000 312.00000 120.00000 102 87 70
288.00000 304.00000 120.00000 69 54 37
288.00000 312.00000 112.00000 71 56 39
288.00000 312.00000 120.00000 81 66 49
296.00000 304.00000 120.00000 71 56 39
296.00000 312.00000 112.00000 72 57 40
296.00000 312.00000 120.00000 71 56 39
304.00000 304.00000 120.00000 72 57 40
304.00000 312.00000 112.00000 73 58 41
304.00000 312.00000 120.00000 73 58 41
312.00000 304.00000 120.00000 74 59 42
312.00000 312.00000 112.00000 74 59 42
312.00000 312.00000 120.00000 74 59 42
256.00000 344.00000 88.00000 80 67 52
256.00000 328.00000 104.00000 70 55 38
264.00000 328.00000 104.00000 73 58 41
256.00000 320.00000 112.00000 68 53 36
256.00000 328.00000 112.00000 70 55 38
264.00000 320.00000 112.00000 66 51 34
264.00000 328.00000 112.00000 70 55 38
256.00000 336.00000 96.00000 76 61 44
256.00000 336.00000 104.00000 74 59 42
256.00000 344.00000 96.00000 78 66 48
264.00000 336.00000 96.00000 78 63 46
264.00000 336.00000 104.00000 76 61 44
264.00000 344.00000 96.00000 80 68 50
272.00000 328.00000 104.00000 73 58 41
280.00000 328.00000 104.00000 74 59 42
272.00000 320.00000 112.00000 83 68 51
272.00000 328.00000 112.00000 71 56 39
280.00000 320.00000 112.00000 73 58 41
280.00000 328.00000 112.00000 74 59 42
272.00000 336.00000 104.00000 78 63 46
272.00000 344.00000 96.00000 87 72 55
272.00000 344.00000 104.00000 86 71 54
280.00000 336.00000 96.00000 82 67 50
280.00000 336.00000 104.00000 81 66 49
280.00000 344.00000 96.00000 84 69 52
280.00000 344.00000 104.00000 85 70 53
256.00000 352.00000 88.00000 83 70 55
256.00000 360.00000 80.00000 85 72 57
256.00000 360.00000 88.00000 85 72 57
264.00000 352.00000 88.00000 88 75 60
264.00000 360.00000 80.00000 86 73 58
264.00000 360.00000 88.00000 91 78 63
256.00000 376.00000 72.00000 79 66 51
264.00000 376.00000 72.00000 80 67 52
256.00000 368.00000 80.00000 84 71 56
256.00000 376.00000 80.00000 82 69 54
264.00000 368.00000 80.00000 86 73 58
264.00000 368.00000 88.00000 89 76 61
264.00000 376.00000 80.00000 83 70 55
272.00000 352.00000 88.00000 94 81 66
272.00000 360.00000 88.00000 97 84 69
280.00000 352.00000 88.00000 100 85 70
280.00000 360.00000 88.00000 98 85 70
272.00000 376.00000 72.00000 78 65 50
280.00000 376.00000 72.00000 87 74 59
272.00000 368.00000 80.00000 90 77 62
272.00000 368.00000 88.00000 95 82 67
272.00000 376.00000 80.00000 86 73 58
280.00000 368.00000 80.00000 100 87 72
280.00000 368.00000 88.00000 102 89 74
280.00000 376.00000 80.00000 92 79 64
256.00000 352.00000 96.00000 82 69 54
264.00000 352.00000 96.00000 86 73 58
272.00000 352.00000 96.00000 91 76 61
280.00000 352.00000 96.00000 94 79 64
312.00000 344.00000 88.00000 60 45 28
288.00000 328.00000 104.00000 76 61 44
296.00000 328.00000 104.00000 76 61 44
288.00000 320.00000 112.00000 73 58 41
288.00000 328.00000 112.00000 75 60 43
296.00000 320.00000 112.00000 75 60 43
296.00000 328.00000 112.00000 75 60 43
288.00000 336.00000 96.00000 82 67 50
288.00000 336.00000 104.00000 79 64 47
288.00000 344.00000 96.00000 84 69 52
296.00000 336.00000 96.00000 79 64 47
296.00000 336.00000 104.00000 76 61 44
296.00000 344.00000 96.00000 78 63 46
304.00000 320.00000 104.00000 74 59 42
304.00000 328.00000 104.00000 74 59 42
312.00000 320.00000 104.00000 74 59 42
312.00000 328.00000 104.00000 73 58 41
304.00000 320.00000 112.00000 74 59 42
304.00000 328.00000 112.00000 75 60 43
312.00000 320.00000 112.00000 74 59 42
312.00000 320.00000 120.00000 74 59 42
312.00000 328.00000 112.00000 74 59 42
304.00000 336.00000 96.00000 74 59 42
304.00000 336.00000 104.00000 74 59 42
304.00000 344.00000 96.00000 71 56 39
312.00000 336.00000 96.00000 68 53 36
312.00000 336.00000 104.00000 72 57 40
312.00000 344.00000 96.00000 68 53 36
288.00000 352.00000 88.00000 97 82 67
288.00000 360.00000 80.00000 117 102 87
288.00000 360.00000 88.00000 109 94 79
296.00000 352.00000 88.00000 100 85 70
296.00000 360.00000 80.00000 106 91 76
296.00000 360.00000 88.00000 105 90 75
288.00000 376.00000 72.00000 92 77 62
296.00000 376.00000 72.00000 97 82 67
288.00000 368.00000 80.00000 107 92 77
288.00000 376.00000 80.00000 97 82 67
296.00000 368.00000 80.00000 104 89 74
296.00000 376.00000 80.00000 100 85 70
304.00000 352.00000 88.00000 95 80 65
304.00000 360.00000 80.00000 98 83 68
304.00000 360.00000 88.00000 93 78 63
312.00000 352.00000 88.00000 72 57 40
312.00000 360.00000 80.00000 93 78 63
312.00000 360.00000 88.00000 84 69 52
304.00000 368.00000 72.00000 101 86 71
304.00000 376.00000 72.00000 103 88 73
312.00000 368.00000 72.00000 101 86 71
312.00000 376.00000 72.00000 107 92 77
304.00000 368.00000 80.00000 100 85 70
304.00000 376.00000 80.00000 101 86 71
312.00000 368.00000 80.00000 96 81 66
288.00000 352.00000 96.00000 92 77 60
296.00000 352.00000 96.00000 89 74 57
320.00000 304.00000 120.00000 76 61 44
320.00000 312.00000 120.00000 74 59 42
328.00000 304.00000 120.00000 74 59 42
328.00000 312.00000 120.00000 73 58 41
336.00000 312.00000 120.00000 68 53 36
344.00000 312.00000 120.00000 63 48 30
352.00000 312.00000 120.00000 61 46 28
360.00000 312.00000 120.00000 56 41 23
368.00000 312.00000 120.00000 61 46 28
320.00000 328.00000 104.00000 71 56 39
328.00000 328.00000 104.00000 70 55 38
320.00000 320.00000 112.00000 73 58 41
320.00000 320.00000 120.00000 75 60 43
320.00000 328.00000 112.00000 72 57 40
328.00000 320.00000 112.00000 73 58 41
328.00000 320.00000 120.00000 71 56 39
328.00000 328.00000 112.00000 71 56 39
320.00000 336.00000 96.00000 68 53 36
320.00000 336.00000 104.00000 71 56 39
320.00000 344.00000 96.00000 66 51 34
320.00000 344.00000 104.00000 69 54 37
328.00000 336.00000 104.00000 70 55 38
328.00000 344.00000 96.00000 69 54 37
328.00000 344.00000 104.00000 70 55 38
328.00000 336.00000 112.00000 69 54 37
336.00000 320.00000 112.00000 69 54 37
336.00000 320.00000 120.00000 67 52 35
336.00000 328.00000 112.00000 68 53 36
344.00000 320.00000 120.00000 66 51 33
344.00000 328.00000 112.00000 68 53 36
344.00000 328.00000 120.00000 66 51 34
336.00000 336.00000 104.00000 71 56 39
336.00000 344.00000 96.00000 72 57 40
336.00000 344.00000 104.00000 72 57 40
344.00000 336.00000 104.00000 71 56 39
344.00000 344.00000 104.00000 73 58 41
336.00000 336.00000 112.00000 70 55 38
344.00000 336.00000 112.00000 70 55 38
344.00000 344.00000 112.00000 73 58 41
320.00000 352.00000 88.00000 72 57 40
320.00000 360.00000 80.00000 82 67 50
320.00000 360.00000 88.00000 77 62 45
328.00000 352.00000 88.00000 75 60 43
328.00000 360.00000 88.00000 78 63 46
320.00000 368.00000 72.00000 94 79 64
320.00000 376.00000 72.00000 98 83 68
328.00000 376.00000 72.00000 93 78 61
320.00000 368.00000 80.00000 87 72 55
328.00000 368.00000 80.00000 85 70 53
328.00000 368.00000 88.00000 81 66 49
328.00000 376.00000 80.00000 89 74 57
336.00000 352.00000 88.00000 74 59 42
336.00000 360.00000 88.00000 78 63 46
344.00000 360.00000 88.00000 81 66 49
336.00000 376.00000 72.00000 90 75 58
336.00000 368.00000 80.00000 84 69 52
336.00000 368.00000 88.00000 80 65 48
336.00000 376.00000 80.00000 89 74 57
336.00000 376.00000 88.00000 85 70 53
344.00000 368.00000 88.00000 84 69 52
344.00000 376.00000 80.00000 87 72 55
344.00000 376.00000 88.00000 87 72 55
320.00000 352.00000 96.00000 70 55 38
328.00000 352.00000 96.00000 72 57 40
336.00000 352.00000 96.00000 73 58 41
336.00000 352.00000 104.00000 72 57 40
336.00000 360.00000 96.00000 76 61 44
344.00000 352.00000 96.00000 73 58 41
344.00000 352.00000 104.00000 75 60 43
344.00000 360.00000 96.00000 78 63 46
344.00000 368.00000 96.00000 85 70 53
352.00000 320.00000 120.00000 65 50 32
352.00000 328.00000 112.00000 67 52 34
352.00000 328.00000 120.00000 66 51 33
360.00000 320.00000 120.00000 65 50 32
360.00000 328.00000 112.00000 70 55 37
360.00000 328.00000 120.00000 65 50 32
352.00000 344.00000 104.00000 79 64 47
360.00000 344.00000 104.00000 81 66 49
352.00000 336.00000 112.00000 72 57 40
352.00000 344.00000 112.00000 75 60 43
360.00000 336.00000 112.00000 73 58 40
360.00000 344.00000 112.00000 77 62 45
368.00000 320.00000 120.00000 65 50 32
368.00000 328.00000 112.00000 71 56 38
368.00000 328.00000 120.00000 67 52 34
376.00000 320.00000 120.00000 70 55 37
376.00000 328.00000 112.00000 74 59 41
376.00000 328.00000 120.00000 73 58 40
368.00000 344.00000 104.00000 82 67 50
376.00000 344.00000 104.00000 84 69 52
368.00000 336.00000 112.00000 78 63 45
368.00000 344.00000 112.00000 81 66 49
376.00000 336.00000 112.00000 79 64 46
376.00000 344.00000 112.00000 82 67 49
352.00000 368.00000 88.00000 88 73 56
352.00000 376.00000 88.00000 91 76 59
360.00000 368.00000 88.00000 96 81 64
360.00000 376.00000 88.00000 97 82 65
368.00000 368.00000 88.00000 102 87 70
368.00000 376.00000 88.00000 100 85 68
376.00000 376.00000 88.00000 101 86 69
352.00000 352.00000 96.00000 80 65 48
352.00000 352.00000 104.00000 81 66 49
352.00000 360.00000 96.00000 87 72 55
